99.3276544224,9.96632602429,5.12234352045,0,0,0
99.3737385122,9.96863774606,5.13640611315,0,0,0
98.6431902985,9.93192782387,5.11051682115,0,0,0
98.4666618636,9.92303692746,5.0954049276,0,0,0
98.3636887497,9.91784698156,5.0632394436,0,0,0
97.7170462163,9.88519328168,5.02463105625,0,0,0
98.7834937201,9.93898856625,5.0357026512,0,0,0
98.7590789023,9.93776025583,5.01774685815,0,0,0
99.3342612597,9.96665747679,5.0494710474,0,0,0
98.9918777264,9.94946620309,5.0090680614,0,0,0
97.9732180528,9.89814215157,5.0057730606,0,0,0
97.2736957204,9.8627428092,4.9641736755,0,0,0
96.5452060847,9.82574201192,4.9429326882,0,0,0
95.1935816256,9.75671981896,4.87529691285,0,0,0
95.0440418578,9.74905338265,4.8559878159,0,0,0
93.9476247774,9.69265829261,4.7970308373,0,0,0
93.8163874796,9.68588599353,4.7579811552,0,0,0
92.8497546149,9.6358577519,4.68465758085,0,0,0
91.2435437191,9.5521486441,4.5236438364,0,0,0
91.0041876853,9.53961150599,4.36682729535,0,0,0
90.7089458927,9.52412441606,4.2496684425,0,0,0
89.9444609078,9.4839053616,4.09463669355,0,0,0
90.3559365279,9.50557397151,3.9770267394,0,0,0
91.5374638064,9.56752129898,3.81287489895,0,0,0
93.081173716,9.64785850415,3.71726103645,0,0,0
95.0270400261,9.74818137019,3.6253834695,0,0,0
97.7551656838,9.88712120305,3.5115098109,0,0,0
98.3224976331,9.91577014826,3.34571047005,0,0,0
99.5096946358,9.97545460798,3.104949861,0,0,0
98.9890611842,9.94932465971,2.87870294595,0,0,0
99.1749214576,9.95866062568,2.52974667075,0,0,0
97.3005558641,9.86410441267,2.2614492693,0,0,0
97.1329898064,9.85560702374,1.87374731505,0,0,0
100.990599071,10.0494078965,1.41689937675,0,0,0
101.029146279,10.0513255981,1.18048306935,0,0,0
102.898427222,10.1438861992,1.05568491405,0,0,0
106.139736902,10.3024141298,1.01767472625,0,0,0
109.401278782,10.4595066223,1.0303938216,0,0,0
112.219597781,10.5933751836,1.00241573445,0,0,0
116.632455373,10.799650706,1.02246032265,0,0,0
122.138897363,11.0516468168,0.99298183335,0,0,0
121.619685642,11.0281315572,1.00765243215,0,0,0
122.810884116,11.0820072241,0.94704795315,0,0,0
127.672764607,11.2992373463,0.8927294727,0,0,0
129.990783776,11.4013500857,0.95257884735,0,0,0
133.333180475,11.5469987648,0.9666512466,0,0,0
138.285458987,11.7594837891,0.98625454005,0,0,0
142.583804851,11.9408460693,0.96320914755,0,0,0
148.346381772,12.1797529438,0.8397544896,0,0,0
153.607134885,12.3938345513,0.89526936915,0,0,0
155.133558366,12.4552622761,0.87118448235,0,0,0
157.430348038,12.5471250906,0.9671023479,0,0,0
158.248050057,12.5796681219,1.11448498785,0,0,0
157.12301239,12.5348718537,1.27699913445,0,0,0
150.897035231,12.284015436,1.0820155008,0,0,0
147.798607906,12.1572450788,1.02171502485,0,0,0
145.107214769,12.0460456071,0.99912073365,0,0,0
142.324525372,11.9299842989,0.8955733722,0,0,0
140.186402897,11.8400339061,0.9726332421,0,0,0
137.96577497,11.7458833201,1.0254513204,0,0,0
138.248976298,11.757932484,1.1119450914,0,0,0
137.685807756,11.7339595941,1.1984388624,0,0,0
137.099404808,11.7089455037,1.3012311195,0,0,0
134.25029839,11.5866431027,1.2726548328,0,0,0
126.896595796,11.2648389157,1.2225237492,0,0,0
123.011077478,11.0910359065,1.0941363966,0,0,0
118.444945017,10.8832414756,0.9403108533,0,0,0
116.270666566,10.7828876729,1.020665724,0,0,0
119.35110897,10.9247933147,1.3182945165,0,0,0
117.263804294,10.8288413182,1.57686382035,0,0,0
114.142348642,10.6837422583,1.76107005555,0,0,0
108.976111241,10.4391623821,1.67292878415,0,0,0
105.066122506,10.2501767061,1.53497023875,0,0,0
99.0390743187,9.95183773575,1.1818265667,0,0,0
94.8752334864,9.74039185487,0.9751829451,0,0,0
90.5429561875,9.51540625446,0.67979985255,0,0,0
86.2089987854,9.28488011691,0.42706544595,0,0,0
82.8498284216,9.10218811174,0.17148713985,0,0,0
83.5852041268,9.14249441492,-0.11776685895,0,0,0
82.5161644258,9.08384084106,-0.05506377825,0,0,0
80.1061637744,8.95020467779,-0.0423446829,0,0,0
81.8038180136,9.04454631331,-0.0173575935,0,0,0
81.0865749111,9.00480843278,-0.2177250231,0,0,0
76.8348653597,8.7655499177,-0.55215779775,0,0,0
73.4941570057,8.57287332262,-0.8592106848,0,0,0
73.7670596598,8.58877521302,-1.42303827705,0,0,0
73.2937005114,8.56117401478,-1.685353683,0,0,0
71.679538091,8.46637691642,-1.82151762975,0,0,0
70.8758940969,8.41878222173,-1.8342367251,0,0,0
72.9155470935,8.53906008256,-1.7405645595,0,0,0
76.9511810937,8.77218223099,-1.6385176002,0,0,0
80.164169018,8.9534445337,-1.60200781455,0,0,0
83.4362124955,9.13434247746,-1.81194643695,0,0,0
83.7465573018,9.15131451223,-2.087422233,0,0,0
82.5237044481,9.0842558555,-2.31457135065,0,0,0
85.6831913585,9.25652155826,-2.6398840338,0,0,0
86.3384897834,9.29185071896,-2.7488151912,0,0,0
85.042616552,9.2218553747,-2.9140163325,0,0,0
86.8297198932,9.31824661045,-2.9972151027,0,0,0
88.2053454386,9.39177009081,-3.1936795254,0,0,0
88.7142659473,9.41882508317,-3.33853207545,0,0,0
89.4819788022,9.45949146636,-3.4755982248,0,0,0
91.8087125851,9.58168631219,-3.7314707274,0,0,0
94.4482776013,9.71845037037,-3.9617677476,0,0,0
95.6077561029,9.77792187036,-4.1042176929,0,0,0
102.389241687,10.118756924,-4.30383001815,0,0,0
107.320857978,10.3595780792,-4.4299716708,0,0,0
105.969329765,10.294140555,-4.40723028135,0,0,0
105.271886985,10.2602089153,-4.3778988903,0,0,0
107.156074968,10.3516218521,-4.3481262045,0,0,0
106.852359263,10.3369414849,-4.2996426213,0,0,0
104.461914872,10.2206611759,-4.27001703375,0,0,0
103.594936623,10.1781597857,-4.3942169895,0,0,0
103.706436599,10.183635726,-4.4901250485,0,0,0
103.97028403,10.1965819778,-4.6657995852,0,0,0
105.053732088,10.2495722881,-4.8341388225,0,0,0
111.577284006,10.5630149108,-4.9848262698,0,0,0
114.190156993,10.6859794588,-5.01968855505,0,0,0
116.325235665,10.7854177325,-5.00352736065,0,0,0
116.829786479,10.8087828398,-4.93813728525,0,0,0
